18.4062 49.6309 189.745
31.6182 50.4681 193.127
25.3034 41.0559 161.758
-11.8309 39.5398 158.68
37.7124 48.0238 190.835
43.6058 65.9167 262.091
25.8309 43.9422 176.276
25.9302 56.9267 227.941
-14.5946 28.7261 114.235
31.1922 45.6787 183.65
27.0597 64.6057 260.732
-8.06344 28.113 112.646
-19.3763 35.8127 150.147
27.2284 43.6275 175.27
18.2453 42.8456 172.223
-9.56565 23.9065 96.4225
35.4853 53.3671 241.208
-0.413314 11.3296 51.4651
-0.41257 11.3246 51.5146
-0.464096 11.3314 51.5373
-0.48149 11.365 51.7162
-0.543166 11.3115 51.4522
-0.577385 11.3362 51.5739
-0.215079 11.3076 51.5343
-0.485912 11.2965 51.4694
-0.520035 11.3212 51.5913
-0.603356 11.3889 51.9059
-0.64367 11.3572 51.7623
-0.524439 11.3039 51.6219
-0.245266 11.3395 51.8385
-0.336529 11.3134 51.7538
-0.479353 11.3344 51.837
-0.265486 11.2688 51.6079
-0.347882 11.2611 51.6159
-0.658355 11.2775 51.6816
-0.503119 11.3239 52.2301
-0.165052 11.2378 51.8934
-0.486215 11.2526 51.9879
-0.505357 11.2667 52.0789
-0.534806 11.287 52.189
-0.0514776 11.3146 52.3077
-0.0415983 11.2796 52.2697
-0.357845 11.1025 51.4331
-0.548162 11.2614 52.1169
-0.613738 11.2044 51.9039
-0.746659 11.1451 51.7027
-0.74517 11.0572 51.3338
-0.592293 11.1215 51.6109
-0.655506 11.0426 51.2219
-0.754202 11.0513 51.4139
-0.445489 11.1058 51.6698
-0.556341 11.0394 51.3736
-0.481131 11.0974 51.7122
-0.508782 11.0431 51.5538
-0.511037 11.0669 51.7381
-0.83232 11.0892 51.8227
-0.866072 11.04 51.5984
-0.564083 11.0872 51.8991
-0.596453 11.0907 51.9607
-0.729322 11.0234 51.7207
-0.848521 10.9329 51.2983
-0.638198 11.0033 51.6242
-0.755977 10.9518 51.4704
-0.848911 10.8948 51.235
-0.228503 10.7976 50.8312
-0.34124 10.7939 50.8268
-0.728744 10.9884 51.7482
-0.864495 10.979 51.6958
-0.90129 10.9679 51.6488
14.1614 25.4145 121.584
-0.524258 10.8902 51.4783
-0.833235 10.9551 51.6886
-0.564895 10.8878 51.5718
-0.359193 10.9345 51.8624
-0.578068 10.8922 51.6556
-0.824013 10.8743 51.5802
-0.919169 10.9157 51.7699
-0.357917 10.9592 52.1002
-0.866301 10.8285 51.4797
-0.913843 10.8444 51.5513
-0.418307 10.8275 51.6471
-0.575143 10.8069 51.5621
-0.61855 10.7662 51.4773
0.171655 10.7906 51.9284
-0.979017 10.6966 51.5209
0.166823 10.7915 52.0456
0.189495 10.7303 51.8502
0.189266 10.7816 52.1364
0.0956925 10.8062 52.2488
0.121102 10.7557 52.0303
-1.0014 10.595 51.3177
-1.0835 10.5366 51.2795
0.336073 10.591 51.8632
-0.331195 10.4647 51.2612
-0.384515 10.4491 51.1734
-1.08318 10.4744 51.3243
-1.15378 10.5093 51.5159
0.432464 10.6172 52.0804
0.354253 10.5889 51.9493
0.340142 10.5934 51.997
8.54633 23.1927 114.78
0.353618 10.6001 52.2038
0.303939 10.5988 52.1922
0.147858 10.5203 51.8216
-0.454892 10.4366 51.405
-0.680187 10.4331 51.3748
0.428086 10.5654 52.1427
0.33499 10.5001 51.8165
0.284403 10.5496 52.053
0.0784234 10.4337 51.5303
0.30379 10.6305 52.5497
0.366745 10.5837 52.5397
0.360168 10.5305 52.3107
-0.0152818 10.3846 51.5218
-1.07051 10.3723 51.5137
-1.3379 10.41 51.7441
0.325643 10.499 52.2066
0.325066 10.4495 51.9995
-0.187808 10.2952 51.1947
-0.291017 10.2864 51.1741
-1.08278 10.3017 51.2676
-1.23654 10.317 51.3647
-1.3399 10.3495 51.4616
-0.825151 10.2865 51.273
-1.23382 10.3854 51.7977
0.117127 10.2989 51.4211
-1.26548 10.3502 51.7098
-1.3431 10.3236 51.6333
0.465309 10.5928 53.0056
-0.080045 10.2729 51.3873
-1.24921 10.3507 51.811
-1.31687 10.3346 51.7494
-0.0509486 10.2339 51.3006
-0.0939856 10.2186 51.2234
-0.508168 10.1927 51.1026
-0.546553 10.2246 51.2684
-1.23948 10.2915 51.647
-1.34839 10.2996 51.6618
-0.979478 10.1965 51.2424
-1.17836 10.2421 51.4932
0.123653 11.2978 56.7935
-0.93159 10.1778 51.3598
-0.987588 10.1977 51.4473
-1.23394 10.2388 51.6714
-1.33172 10.2571 51.7523
-1.42007 10.2359 51.6908
-0.437013 10.0901 51.0194
-0.516991 10.1276 51.1721
-1.07957 10.1905 51.5316
-0.0752908 10.0989 51.125
-0.659345 10.1273 51.2802
-1.24413 10.2011 51.6751
-1.29545 10.1991 51.7056
-0.0233069 10.0853 51.1476
-0.774305 10.0855 51.1598
-1.35266 10.187 51.7064
-1.43017 10.1606 51.6301
-0.000382222 10.083 51.2398
-0.166684 10.0698 51.1757
-0.18243 10.1067 51.3902
-0.575112 10.1062 51.3786
-0.669803 10.0993 51.3329
-0.758071 10.1019 51.343
-0.771058 10.1031 51.3807
-0.915174 10.1156 51.428
-1.02792 10.1267 51.502
-1.33652 10.187 51.8068
-1.4091 10.1818 51.7952
-1.41939 10.1638 51.7406
-0.0205449 10.0656 51.255
-0.18862 10.0369 51.1101
-0.211782 10.0392 51.1407
-1.29532 10.1178 51.6258
-1.43343 10.1507 51.7355
-1.43191 10.0741 51.3667
-0.07296 9.99293 51.2036
-0.247977 10.0031 51.2509
-0.34132 9.99099 51.1802
-0.406339 9.95136 50.9952
-0.575193 10.0196 51.3492
-0.679084 10.016 51.311
-0.823429 10.0073 51.2928
-1.14005 10.0653 51.6251
-1.32519 10.1162 51.8775
0.0657263 10.0914 51.8026
-0.0868591 9.93988 51.0415
-0.241654 9.94122 51.0216
-0.248359 9.98896 51.3029
-0.321231 9.96534 51.1508
-1.01894 9.97485 51.2722
-1.35107 10.057 51.6667
-1.40914 10.0344 51.5804
-1.44503 10.0466 51.6538
-1.49183 10.035 51.5873
0.324219 10.2779 52.8428
0.173196 10.0207 51.5447
0.176217 10.0326 51.6486
0.0391099 9.94533 51.152
-0.587295 9.95886 51.2311
-0.65821 9.96972 51.3023
0.32381 10.2503 52.8265
0.317351 10.1997 52.601
0.148823 10.1178 52.1862
-0.10109 9.91195 51.0913
-0.182451 9.8925 51.0359
-0.23724 9.90397 51.0831
-0.522009 9.85974 50.8216
-0.602496 9.87589 50.9096
-0.682223 9.90449 51.064
-0.765588 9.87174 50.94
-0.0890351 9.91439 51.1995
-0.176503 9.89823 51.1545
-0.282029 9.93873 51.3032
-0.376787 9.91042 51.1875
-0.409295 9.89077 51.0952
-0.657627 9.93403 51.3277
-0.749613 9.94785 51.3929
-0.825958 9.96111 51.4722
-1.00147 9.97621 51.5464
-1.40445 10.0246 51.8334
-1.51745 10.0074 51.7081
-1.51674 10.0209 51.8345
0.000505913 9.9797 51.6666
-0.0188526 9.98542 51.7192
-0.604845 9.88892 51.1858
-0.680274 9.88642 51.1825
-0.710094 9.8965 51.2491
-0.917114 9.93526 51.4601
-1.44938 10.0154 51.8649
0.105482 10.7696 55.7699
0.0588008 9.98415 51.9159
-0.104569 9.84349 51.1508
-0.438962 9.78809 50.8649
-0.550256 9.79945 50.9402
-0.118804 9.83107 51.1979
-0.15886 9.8291 51.19
-0.16854 9.79218 51.0296
-0.378501 9.8093 51.0787
-0.449038 9.81399 51.0752
-0.536213 9.8238 51.1668
-0.579128 9.86411 51.3787
-0.59752 9.82167 51.1805
-0.759757 9.8529 51.3547
-1.23615 9.94467 51.8382
0.161666 10.0442 52.4576
-0.597532 9.80668 51.1853
-0.617805 9.80406 51.1953
-0.67952 9.8101 51.2065
-0.92382 9.85213 51.4419
-1.16139 9.82104 51.3484
-1.25632 9.88638 51.6364
-1.28313 9.90343 51.7476
-1.36229 10.0514 52.555
-1.65111 9.95199 51.9809
0.17383 10.0829 52.7169
-0.169177 9.80082 51.2433
-0.835082 9.83702 51.4974
-1.35661 9.84766 51.5454
-1.62857 9.90701 51.8488
-0.529889 9.77762 51.2272
-1.2351 9.74474 51.1171
-1.36747 9.79489 51.3826
-1.40336 9.79953 51.4162
-1.63594 9.83152 51.5132
0.0996671 10.0341 52.6913
-0.224757 9.76118 51.2766
-0.514542 9.78541 51.3697
-0.584273 9.78007 51.3572
-1.14139 9.88004 51.9408
-1.5659 9.85981 51.8394
-0.114991 9.80575 51.5796
-0.217281 9.71845 51.1436
-0.524658 9.7729 51.4224
-1.15838 9.82102 51.738
-0.0892888 9.82477 51.7917
-0.22236 9.74012 51.3816
-1.32276 9.85299 52.0059
-0.176776 9.76094 51.5809
-0.225882 9.68293 51.2037
-1.59327 9.79296 51.8015
0.109433 9.9801 52.8543
0.00529797 9.82993 52.0436
-0.0737819 9.82093 52.0028
-0.171875 9.80372 51.9
-0.451801 9.7745 51.8112
-0.287776 9.22881 49.3566
-1.08246 9.83479 52.1074
-1.16696 9.80626 51.9545
0.0830421 9.91995 52.6417
-0.0230773 9.79186 51.9439
-0.00592447 9.91485 52.6567
-0.101615 9.74346 51.6939
-0.0991292 9.75384 51.7945
-0.180084 9.72672 51.612
-0.183833 9.7164 51.5967
-0.250264 9.65958 51.2694
-0.451388 9.68988 51.4445
-0.466566 9.70438 51.5521
-0.490085 9.66787 51.3777
-0.768288 9.69201 51.4364
-1.16065 9.74055 51.7945
-0.411263 9.65175 51.3686
-0.478441 9.67548 51.47
-0.849778 9.6787 51.5026
-1.44743 9.7739 51.975
-0.462384 9.61859 51.2235
-1.15934 9.64036 51.4702
-1.23922 9.73479 51.943
-1.62371 9.71389 51.8325
0.00247627 9.88547 52.7757
0.0230953 9.91125 52.9774
-0.32815 9.61852 51.3604
-0.49586 9.64452 51.5035
-0.549158 9.61945 51.3569
-1.25861 9.76762 52.1862
-1.33171 9.73952 52.1021
-0.0106053 9.829 52.5933
-0.090887 9.74425 52.1459
-0.193029 9.67645 51.7664
-0.484826 9.64991 51.6773
-0.645863 9.5896 51.3152
-1.44747 9.67903 51.8167
-0.984401 9.55421 51.3616
-1.33288 9.66845 51.8802
-0.100259 9.7122 52.1855
-0.275188 9.64086 51.7984
-0.352186 9.54783 51.304
-0.428126 9.54796 51.36
-0.468607 9.5554 51.403
-1.01499 9.54183 51.3937
-0.260886 9.65621 51.9849
-0.339786 9.54873 51.4095
-0.41729 9.53484 51.3873
-0.571334 9.59758 51.7491
-0.877929 9.5997 51.706
-0.986563 9.62679 51.8784
-0.981226 9.58251 51.6922
-1.58479 9.61076 51.7943
-0.239255 9.633 52.0144
-0.560325 9.54979 51.4958
-0.50251 9.59063 51.8271
-0.544618 9.58369 51.7905
-0.676334 9.50554 51.3115
-1.31951 9.68087 52.336
0.19631 10.423 56.3639
-0.283745 9.59997 51.8794
-0.504677 9.50721 51.41
-0.555516 9.4605 51.1458
-2.62461 13.8271 74.0431
-1.41095 9.55048 51.6882
-1.52584 9.62012 52.0421
-1.49667 9.53 51.6287
-1.6098 9.58565 51.9065
-0.0478424 9.78448 53.0784
-0.510862 9.47073 51.3375
-1.40526 9.53202 51.7336
-1.54998 9.60127 52.0483
-1.50368 9.50414 51.6171
-1.61293 9.50033 51.5087
-1.59512 9.49558 51.5612
-0.280888 9.57334 52.0039
-0.414403 9.48886 51.537
-0.528661 9.49014 51.5138
-0.487696 9.46484 51.4651
-1.4051 9.52482 51.7807
-1.435 9.57495 52.0798
-1.49397 9.58464 52.1143
-1.48209 9.534 51.9009
-0.269879 9.55954 52.0298
-0.291226 9.55019 52.0013
-0.418896 9.41875 51.2815
-0.542184 9.43207 51.3143
-0.653107 9.45671 51.4678
-2.67922 13.6939 73.7971
-1.52852 9.57374 52.1522
6.8073 20.3875 111.391
-0.265682 9.57911 52.2319
-0.420945 9.48555 51.7357
-0.552947 9.41385 51.2926
-0.541557 9.4574 51.6361
-0.567069 9.45691 51.6533
-1.23617 9.54803 52.1922
-1.23932 9.44216 51.6479
-0.344319 9.50877 51.9445
-0.381272 9.55204 52.1887
-0.499995 9.37736 51.3284
-0.584087 9.42187 51.5288
-0.328597 9.5375 52.21
-0.378891 9.55696 52.3101
-0.589124 9.44461 51.7387
-1.33724 9.53974 52.305
-1.42422 9.48108 52.0276
-0.0649904 9.77279 53.6875
-0.251449 9.53227 52.3986
-0.345559 9.54311 52.4043
-0.610096 9.3903 51.5508
-0.966566 9.47161 52.0397
-2.60176 13.578 73.7944
-2.54065 13.4769 73.2604
-2.68899 13.5337 73.5545
-1.34464 9.52455 52.354
-2.5906 13.5336 73.716
-2.62593 13.4267 73.1259
-2.64863 13.4998 73.5341
-1.18113 9.52285 52.532
-0.579136 9.33886 51.5249
-2.552 13.3987 73.1453
-2.69118 13.311 72.634
-1.45596 9.37661 51.769
-0.797477 9.30499 51.4198
-1.26182 9.58565 53.0226
-1.33858 9.48337 52.453
-0.796129 9.24793 51.2384
-2.64594 13.2246 72.4839
-1.16171 9.40222 52.2529
-1.27408 9.49708 52.7049
-1.35853 9.4921 52.6239
-1.37817 9.53597 52.9069
-0.834157 9.39935 52.1898
-0.792588 9.29926 51.7625
-0.162629 9.60903 53.5694
-0.255729 9.53322 53.1873
-0.672929 9.34348 52.1427
-0.756465 9.34037 52.1291
-0.83051 9.38886 52.3687
-0.599113 9.33937 52.1964
-0.674223 9.30094 52.042
-0.77984 9.28434 51.9253
-0.836389 9.2868 51.9237
-0.571637 9.31269 52.1685
-0.784286 9.34915 52.3811
-1.27108 9.47627 53.1047
-0.598549 9.30198 52.2188
-0.679265 9.29172 52.1672
-0.683878 9.26883 52.0818
-0.773086 9.28762 52.1866
-0.581889 9.2924 52.2761
-0.667551 9.30396 52.3434
-0.666179 9.27299 52.2185
1.3656 12.0812 68.5576
0.934507 11.9437 67.5528
-0.575492 9.23943 52.1233
-0.556506 9.23582 52.2173
-0.41674 9.33948 53.0091
-0.670254 9.1562 52.2538
-0.520137 9.17708 52.4911
-0.611427 9.10319 52.0088
-1.0174 9.54708 54.7612
-1.03319 9.5338 54.7573
-0.900479 9.51091 55.0295
-0.669815 9.4985 55.2746
-0.680787 9.49373 55.2965
-0.696109 9.4905 55.2893
-0.680942 9.45 55.2304
6.85137 18.4014 108.17
2.86766 12.7293 76.0251
8.30714 17.7692 114.968
-7.35606 16.0714 115.008
-0.356833 15.194 112.859
-3.66729 7.6151 58.2242
-4.22885 7.57231 57.8922
-4.16915 7.53999 57.893
-4.33739 7.53257 57.6243
-4.35676 7.50015 57.4033
-3.8161 7.49477 57.6595
-3.96252 7.46376 57.2452
-4.19698 7.44414 57.077
-4.29704 7.43184 57.0799
-4.35324 7.49707 57.6652
-4.58482 7.44849 57.3733
-4.74397 7.41926 57.1911
-3.79371 7.47297 57.6648
-3.94923 7.46824 57.4651
-4.02875 7.52902 57.9356
-3.94746 7.53202 58.3236
-4.01072 7.4246 57.2879
-4.20543 7.461 57.3549
-4.14361 7.42067 57.2828
-4.15972 7.39885 57.1704
-4.3496 7.46236 57.4967
-4.57159 7.50406 57.6699
-4.57193 7.44167 57.351
-4.58206 7.42623 57.3147
-4.74265 7.42992 57.4456
-4.1671 7.42102 57.5008
-4.21828 7.40823 57.372
-4.37727 7.40803 57.0624
-4.37925 7.40321 57.1408
-4.50341 7.3833 57.0052
-4.58969 7.43674 57.4014
-4.55065 7.34463 56.9157
-3.53564 7.4649 58.0491
-3.86001 7.39098 57.2854
-3.95947 7.45456 57.9983
-3.97943 7.4223 57.9249
-4.56981 7.42395 57.6351
-3.94434 7.30326 56.802
-3.98841 7.30229 56.8015
-4.00808 7.27091 56.7309
-4.53106 7.31486 57.5721
-4.57942 7.31558 57.5784
-4.54982 7.33479 57.7176
-4.5571 7.29375 57.5835
-4.55993 7.31094 57.6114
-4.71237 7.26637 57.5806
-4.71498 7.2293 57.355
-3.97953 7.21255 57.2417
-4.22228 7.27901 57.5973
-4.54855 7.27114 57.549
-4.59902 7.21142 57.2406
-4.35805 7.18732 57.3054
-4.38453 7.13712 57.3472
-4.57468 7.2328 58.1564
-4.58023 7.12592 57.511
-1.56664 5.37146 44.157
-4.02816 7.11489 57.5016
-4.14509 7.08912 57.3259
-4.16855 7.08502 57.3546
-4.15474 7.07265 57.413
-4.18274 7.06654 57.413
-4.53766 7.10588 57.462
-4.58174 7.0716 57.4192
-4.53421 7.04024 57.407
-4.58318 7.03126 57.3119
-4.78388 7.0512 57.4891
-1.94557 7.74838 63.9354
-5.25266 6.99535 57.5814
7.75634 12.8042 106.516
-3.47257 6.9983 57.7725
-3.98512 6.98902 57.6016
-4.55364 6.97286 57.754
-4.01881 6.97136 57.6271
-4.17826 6.88859 57.3183
-4.17214 6.85466 57.1483
-4.39304 6.94172 57.8046
-3.45018 6.88304 57.45
-3.45776 6.85972 57.3353
-4.43405 6.88433 57.5465
-4.5469 6.89665 57.4732
-3.99739 6.81908 56.9213
-4.01142 6.81784 57.0033
-3.81504 6.86621 57.5268
-3.81915 6.80952 57.2199
-4.00805 6.77598 56.8884
-4.01943 6.79993 57.2407
-3.45316 6.77915 57.4793
-3.8308 6.83616 58.0797
-1.61881 7.69208 65.4957
-3.27452 6.79417 57.748
-3.45791 6.75856 57.5566
-3.63124 6.76668 57.6957
-3.85478 6.75873 57.3911
-3.81864 6.71975 57.2359
-4.01893 6.71011 57.2565
-2.05992 7.61034 65.0583
-3.2732 6.77431 57.719
-3.62677 6.73445 57.5452
-4.37642 6.7133 57.3877
-5.16458 6.77408 58.1667
-3.67238 6.80178 58.1249
-4.56933 6.72695 57.548
-0.344114 8.22537 70.3933
-3.1031 6.82853 58.7683
-3.2729 6.72895 57.7264
-3.46613 6.74578 57.8946
-3.61971 6.69398 57.3529
-3.87598 6.7096 57.7388
-4.36613 6.68518 57.6096
-1.20577 7.77421 67.3673
-2.35415 7.33744 63.3744
-4.38763 6.67177 57.7213
-3.25674 6.65447 57.4864
-3.43878 6.58082 56.9054
-3.59003 6.61995 57.4188
-8.81869 11.7329 106.572
-1.30364 7.72092 67.2733
-3.44372 6.55028 56.8775
-4.36605 6.57823 57.2741
-3.45121 6.64974 58.0351
-4.20528 6.66917 58.0215
-4.36497 6.60426 57.7326
-3.48599 6.62339 57.8359
-3.44047 6.6083 57.9492
-3.61832 6.57846 57.6898
-4.25314 6.61612 57.7766
-4.37017 6.56019 57.564
-3.40558 6.55259 57.6428
-4.35447 6.52893 57.4444
-3.46745 6.54161 57.5213
-3.44537 6.51677 57.4651
-4.21483 6.52707 57.74
-3.68761 6.57167 57.9275
-3.68736 6.55368 57.8779
-3.81557 6.52432 57.7634
-9.33822 10.7859 102.626
-3.6232 6.45525 57.5145
-3.68968 6.43073 57.5155
-3.82001 6.47316 57.8999
-3.79914 6.43665 57.8632
-4.0666 6.52871 58.3414
-3.97085 6.40904 57.6327
-4.09758 6.46524 58.0002
-4.3802 6.47386 57.9673
-3.82872 6.40376 57.7395
-3.87217 6.41046 57.8289
-3.62076 6.35722 57.4544
-3.6537 6.35073 57.4309
-3.82119 6.36282 57.4919
-4.04491 6.36273 57.5454
-3.68784 6.36862 57.5552
-3.67383 6.32015 57.3598
-3.79137 6.40417 58.0617
-3.80674 6.31639 57.3547
-3.90236 6.38963 58.0117
-4.04958 6.39646 57.7831
-3.99328 6.3554 57.8097
-4.10541 6.39878 58.0862
-4.22346 6.36289 57.617
-4.2159 6.30784 57.3367
-5.00563 6.48239 58.8063
-5.0455 6.43554 58.6429
-5.17868 6.42117 58.5202
-3.60905 6.30672 57.4396
-4.06205 6.35746 57.9449
-3.49171 6.28029 57.2917
-5.00056 6.42146 58.8496
-3.46849 6.23781 57.2133
-3.69186 6.45975 59.5789
-4.97471 6.37144 58.9069
-4.99641 6.305 58.5708
-4.98742 6.29181 58.636
-3.50539 6.58656 60.9956
-3.51238 6.56579 60.8948
-3.5416 6.58116 61.1244
-3.53822 6.57401 61.1027
-3.55234 6.56911 61.1537
-4.63921 6.17325 57.7785
-4.97236 6.11588 58.6563
-5.00895 6.03229 58.4132
-3.52311 6.29293 60.3889
-7.78552 8.7063 97.7122
-0.581765 3.6054 55.0478
-0.57119 3.55771 55.3154
-0.771612 3.552 55.3118
-0.509291 3.51882 55.029
-0.599422 3.52187 55.083
-0.703093 3.52257 55.1929
-0.733121 3.508 55.0031
-0.771234 3.51324 55.1129
-0.582985 3.48846 54.8833
-0.717443 3.50686 55.326
-0.761545 3.50233 55.2584
-0.606375 3.45832 54.7512
-0.622619 3.47665 55.1349
0.385727 3.48488 55.4274
-0.772341 3.45678 55.2092
0.374166 3.44843 55.3411
-0.814451 3.41987 54.9557
0.357591 3.39788 55.4023
0.226091 3.38997 55.399
-0.193892 3.39356 55.4475
-0.757612 3.38333 55.3812
-0.758974 3.35577 55.2184
-0.773067 3.34014 55.0452
-0.720619 3.31058 55.0082
-0.770077 3.30577 54.9143
0.365626 3.30822 55.1052
0.20607 3.30152 55.0536
-0.727945 3.2788 54.8903
-0.766195 3.27512 54.8508
-0.731135 3.26641 55.2989
0.348308 3.19925 55.0464
0.155916 3.20243 55.0761
-0.777391 3.2076 55.3732
0.231927 3.17735 55.1595
-0.731953 3.14987 55.1335
-0.780594 3.1489 55.1073
-0.802797 3.12305 55.0431
-0.780543 2.985 55.1838
4.67056 1.83956 67.1714
-0.783637 2.92767 54.921
-0.72786 2.81928 55.094
0.317971 2.79854 54.7147
-0.555338 2.78463 54.9272
-0.520528 2.74759 55.0427
-0.533471 2.73891 54.9745
-0.535517 2.71247 54.8006
-0.541941 2.68726 54.5726
0.254723 2.68799 54.7304
0.117422 2.64647 54.7847
-0.407295 2.66025 54.998
0.329299 2.62393 54.665
0.340448 2.61378 54.6218
0.115511 2.61867 54.7326
-0.190557 2.62991 54.8644
-0.741013 2.60562 54.8373
0.369889 2.60235 54.7272
0.325845 2.58558 54.777
0.306113 2.55262 54.3015
0.273566 2.55023 54.292
-0.525853 2.5736 54.7041
-0.222958 2.56264 54.8172
0.356639 2.45599 54.5321
0.355937 2.45044 54.5563
0.108588 2.47139 54.8038
-0.263347 2.47735 54.9111
-0.254987 2.46763 54.8828
-0.373295 2.46873 54.8102
-0.405829 2.46237 54.8854
-0.555906 2.4628 54.8467
0.201648 2.44559 54.6577
0.168959 2.44339 54.649
0.106063 2.44695 54.672
0.0907322 2.44237 54.6674
-0.0658564 2.4401 54.7029
-0.220474 2.42243 54.5728
-0.374483 2.44563 54.7026
-0.595364 2.45404 54.9202
0.343838 2.4094 54.4376
0.353192 2.40502 54.5229
0.257945 2.41317 54.542
0.155957 2.4204 54.5166
0.124209 2.41963 54.5413
0.104187 2.41956 54.6213
-0.0378803 2.4373 54.854
-0.0581498 2.41779 54.4937
-0.0023844 2.41259 54.7251
-0.195194 2.41247 54.6869
0.318332 2.38113 54.2876
-0.0367571 2.38716 54.6078
-0.0837865 2.38909 54.6475
-0.198773 2.41074 54.8987
-0.272349 2.39691 54.8074
-0.599172 2.39931 54.6611
0.557333 2.407 55.468
-0.0555182 2.37354 54.6545
-0.0967745 2.3758 54.7219
-0.275391 2.38158 54.8709
-0.414166 2.38253 54.8866
0.346813 2.30849 53.8823
0.106834 2.35877 54.6815
0.0825586 2.35203 54.5962
0.0237118 2.32581 53.9431
-0.241256 2.33628 54.5409
0.145739 2.30103 54.9413
-0.134446 2.29463 54.9301
-0.214084 2.30157 54.9723
-0.220263 2.29385 54.9328
-0.358978 2.29066 55.0338
0.356927 2.25675 54.7598
0.136176 2.26633 54.8529
-0.201131 2.26741 54.8156
-0.229804 2.26411 54.8009
-0.213569 2.25609 54.8541
-0.329895 2.26576 54.8065
-0.398732 2.24902 54.6726
-0.579343 2.28821 55.102
0.363281 2.21751 54.4607
0.155326 2.2491 54.959
0.379651 2.22846 54.8982
0.37695 2.2204 54.8567
0.249161 2.22493 54.8366
-0.222075 2.23028 54.9145
0.340912 2.2174 54.961
0.311396 2.21462 54.9489
0.145624 2.2111 54.9167
-0.0579927 2.20869 54.9469
-0.133703 2.20594 54.9385
-0.136156 2.1973 54.8939
-0.219462 2.19409 54.8481
-0.398643 2.19982 54.8207
-0.570048 2.19356 54.9087
0.372675 2.18455 54.8873
0.37039 2.1747 54.8006
0.365986 2.13758 54.0412
-0.403511 2.16045 54.7437
0.309244 2.1228 55.0311
0.331766 2.10282 54.7814
0.125339 2.12491 54.9129
0.136256 2.11984 54.9932
-0.0516884 2.13255 55.1285
-0.0713475 2.11133 54.8573
-0.19229 2.1312 55.0785
-0.197151 2.11459 54.9919
-0.384579 2.13788 55.2151
-0.375462 2.12583 55.1188
-0.380254 2.11264 54.9423
-0.393315 2.10468 54.8749
-0.585072 2.13927 55.3682
-0.569512 2.11039 55.0671
-0.7282 2.12436 55.3556
0.272633 2.10356 54.8942
0.262942 2.09801 54.8793
0.290455 2.0844 54.806
0.120849 2.08982 54.8207
-0.160211 2.08068 54.7412
-0.181431 2.07826 54.7841
-0.406595 2.09128 54.9509
-0.576743 2.11236 55.1829
-0.594666 2.11801 55.458
0.306552 2.05577 54.6112
-0.210489 2.07509 54.6993
-0.399442 2.06008 54.6355
-0.605137 2.09855 55.3944
-0.53703 2.05026 54.5683
-0.564975 2.04941 54.6288
0.371551 2.0399 54.5869
0.286883 2.04454 54.564
0.297679 2.02729 54.4998
0.117791 2.04971 54.5776
-0.0669969 2.03607 54.5474
-0.0643811 2.02672 54.4983
-0.152326 2.03532 54.5502
-0.182024 2.03148 54.5145
-0.39603 2.02801 54.4775
-0.430742 2.02834 54.5357
-0.611468 2.02865 54.5517
0.189066 2.02344 55.0116
-0.227881 2.02536 55.0546
-0.358009 2.0218 54.9919
-0.718135 2.03056 55.2843
0.0250398 2.00132 54.8098
0.116585 1.93992 55.0535
-0.206913 1.93223 55.0385
-0.712339 1.94609 55.4678
0.364349 1.91004 55.0137
0.152519 1.91396 55.0055
-0.0709525 1.90766 54.8531
-0.240995 1.90782 54.9221
-0.583475 1.93555 55.4259
-0.740935 1.9091 55.2429
0.519005 1.89955 54.7739
0.319849 1.8794 54.6826
-0.544965 1.90675 55.0881
-0.552569 1.90933 55.3495
-0.592325 1.91533 55.564
-0.717844 1.88675 54.9864
6.74534 2.46978 72.215
-0.210919 1.86638 54.7204
-0.568763 1.88659 55.1488
-0.582326 1.87119 54.8303
-0.736817 1.86517 55.0297
-0.595252 1.8393 55.3976
6.22349 2.333 72.1764
0.467177 1.80195 55.8136
0.518894 1.7901 55.8574
0.513853 1.78045 55.7496
0.316382 1.77853 55.6429
-0.558264 1.78695 55.4795
-0.593543 1.77634 55.4251
-0.729219 1.76942 55.4684
0.503472 1.7689 55.5499
0.467962 1.76657 55.5215
0.495363 1.75418 55.4523
0.487054 1.74894 55.4619
0.295901 1.74465 55.3051
-0.206208 1.75359 55.3935
-0.579897 1.7597 55.5683
-0.588901 1.74949 55.4301
0.134443 1.71415 54.8311
-0.607475 1.72644 55.179
0.473148 1.70851 54.9509
-0.608412 1.69993 55.1579
-0.686394 1.68822 55.1009
-0.719153 1.68556 55.0893
0.490972 1.71498 55.8353
0.487216 1.70905 55.8192
0.48717 1.70306 55.8269
-0.680436 1.67868 55.4507
0.450437 1.68176 55.6124
-0.731289 1.59355 55.5989
-0.729358 1.56175 55.4075
-0.116801 1.57782 56.4558
-0.369773 1.56659 55.6711
-0.587394 1.5544 55.2823
-0.513382 1.5477 55.7779
-0.711672 1.53287 55.1181
-0.78101 1.51083 55.1267
-0.477744 1.5027 55.1249
-0.150936 1.47872 56.1184
-0.598125 1.49344 55.6057
-0.737524 1.47619 55.5218
-0.393428 1.40948 54.9239
-0.527901 1.41235 55.6811
-0.59603 1.41412 55.601
-0.367872 1.38061 54.6683
-0.348779 1.38447 55.5709
-0.405683 1.38192 55.3893
-0.574576 1.40741 55.6311
-0.595983 1.38329 55.4126
-0.226943 1.38679 55.7293
-0.403461 1.34183 54.6769
-0.415236 1.33686 54.6786
-0.451717 1.3369 54.7384
-0.333647 1.33947 55.8437
-0.382007 1.32848 55.6704
-0.412083 1.32503 55.6343
-0.480138 1.3224 55.7022
6.735 0.955672 69.399
7.57136 0.580531 68.5157
7.19262 -0.11705 66.5719
7.28222 -0.139822 66.0835
7.19228 -0.14514 66.6796
7.32541 -0.269761 65.9834
7.32263 -0.271623 66.0172
7.30888 -0.273362 66.0379
7.24124 -0.275815 65.8736
